ply
format ascii 1.0
element vertex 599
property float x
property float y
property float z
end_header
-0.037814 -0.010313 0.338813
-0.039714 -0.011773 0.386893
-0.035385 -0.011488 0.377670
-0.033090 -0.011874 0.390453
-0.030533 -0.012246 0.402767
-0.022449 -0.010204 0.335685
-0.023177 -0.012155 0.399960
-0.007238 -0.009870 0.324923
-0.004464 -0.010146 0.334027
-0.001472 -0.010033 0.330304
0.001451 -0.009894 0.325732
0.004414 -0.010032 0.330278
0.007301 -0.009956 0.327757
0.010132 -0.009869 0.324846
0.012922 -0.009789 0.322184
0.015480 -0.009595 0.315754
-0.055552 -0.008198 0.376523
-0.052468 -0.008243 0.378720
-0.045690 -0.007673 0.352681
-0.042307 -0.007631 0.350891
-0.039707 -0.007735 0.355797
-0.035564 -0.007530 0.346490
-0.034529 -0.008007 0.368557
-0.029704 -0.007614 0.350530
-0.028166 -0.008069 0.371574
-0.024509 -0.007957 0.366517
-0.021614 -0.008097 0.373021
-0.017592 -0.007788 0.358855
-0.014360 -0.007770 0.358083
-0.012252 -0.008524 0.392847
-0.007463 -0.007269 0.335055
-0.004422 -0.007179 0.330901
-0.001459 -0.007106 0.327543
0.001429 -0.006959 0.320775
0.004296 -0.006975 0.321481
0.007203 -0.007015 0.323350
0.010210 -0.007104 0.327387
0.012927 -0.006995 0.322348
0.016029 -0.007096 0.326971
-0.051579 -0.004567 0.349610
-0.048707 -0.004591 0.351591
-0.044848 -0.004519 0.346202
-0.044140 -0.004777 0.366112
-0.041355 -0.004834 0.370579
-0.037239 -0.004731 0.362832
-0.033764 -0.004698 0.360415
-0.031082 -0.004780 0.366808
-0.028148 -0.004838 0.371357
-0.023340 -0.004547 0.349046
-0.020415 -0.004589 0.352345
-0.018288 -0.004858 0.373072
-0.014171 -0.004601 0.353384
-0.010665 -0.004452 0.341975
-0.007336 -0.004287 0.329344
-0.004363 -0.004249 0.326469
-0.001496 -0.004370 0.335734
0.001440 -0.004209 0.323384
0.004319 -0.004207 0.323176
0.007220 -0.004219 0.324131
0.010120 -0.004224 0.324511
0.012774 -0.004147 0.318558
0.015779 -0.004192 0.321903
0.018907 -0.004250 0.326317
-0.051955 -0.001533 0.352170
-0.049010 -0.001540 0.353793
-0.045849 -0.001540 0.353940
-0.043846 -0.001582 0.363687
-0.039652 -0.001545 0.355332
-0.036055 -0.001527 0.351300
-0.033800 -0.001568 0.360806
-0.030705 -0.001574 0.362368
-0.027631 -0.001583 0.364543
-0.024189 -0.001571 0.361761
-0.020892 -0.001565 0.360592
-0.017491 -0.001549 0.356834
-0.014036 -0.001519 0.350028
-0.010740 -0.001494 0.344378
-0.007247 -0.001412 0.325344
-0.004286 -0.001392 0.320730
-0.001446 -0.001409 0.324690
0.001441 -0.001404 0.323500
0.004290 -0.001393 0.321005
0.007073 -0.001378 0.317569
0.009981 -0.001389 0.320054
0.012724 -0.001377 0.317302
0.016004 -0.001417 0.326497
0.018469 -0.001384 0.318760
-0.051568 0.001522 0.349545
-0.050981 0.001602 0.368021
-0.045497 0.001528 0.351218
-0.041985 0.001515 0.348245
-0.039825 0.001552 0.356877
-0.036979 0.001566 0.360310
-0.034116 0.001582 0.364177
-0.030149 0.001546 0.355805
-0.027265 0.001562 0.359708
-0.024324 0.001579 0.363770
-0.021019 0.001575 0.362784
-0.017617 0.001560 0.359393
-0.014678 0.001588 0.366026
-0.010819 0.001505 0.346939
-0.007630 0.001486 0.342540
-0.004326 0.001405 0.323749
-0.001456 0.001419 0.326977
0.001449 0.001411 0.325330
0.004372 0.001419 0.327134
0.007291 0.001420 0.327356
0.010121 0.001408 0.324535
0.013145 0.001423 0.327814
0.016228 0.001437 0.331066
0.019718 0.001477 0.340316
-0.051632 0.004572 0.349972
-0.048142 0.004538 0.347514
-0.044272 0.004461 0.341756
-0.041786 0.004522 0.346584
-0.038575 0.004509 0.345668
-0.036968 0.004697 0.360192
-0.034669 0.004824 0.370070
-0.031391 0.004828 0.370454
-0.027243 0.004683 0.359407
-0.023694 0.004616 0.354341
-0.020997 0.004720 0.362391
-0.017678 0.004696 0.360645
-0.014274 0.004634 0.355944
-0.010919 0.004558 0.350113
-0.007896 0.004614 0.354495
-0.004546 0.004428 0.340190
-0.001442 0.004214 0.323750
0.001463 0.004276 0.328507
0.004363 0.004249 0.326469
0.007226 0.004223 0.324405
0.009935 0.004147 0.318567
0.013148 0.004269 0.327881
0.015887 0.004220 0.324096
0.019320 0.004342 0.333440
0.025360 0.004940 0.379259
-0.050599 0.007467 0.342952
-0.048953 0.007690 0.353351
-0.045278 0.007604 0.349506
-0.042384 0.007645 0.351527
-0.038033 0.007409 0.340798
-0.036684 0.007768 0.357409
-0.033821 0.007843 0.360998
-0.029295 0.007509 0.345699
-0.026839 0.007689 0.354063
-0.024033 0.007803 0.359398
-0.020969 0.007855 0.361880
-0.017927 0.007937 0.365707
-0.014056 0.007606 0.350498
-0.010584 0.007363 0.339364
-0.007305 0.007115 0.327922
-0.004454 0.007230 0.333279
-0.001470 0.007159 0.330013
0.001404 0.006840 0.315287
0.004245 0.006891 0.317640
0.007376 0.007184 0.331123
0.009957 0.006927 0.319251
0.013327 0.007211 0.332310
0.015934 0.007055 0.325052
0.018963 0.007104 0.327272
0.023527 0.007638 0.351823
-0.052060 0.010756 0.352826
-0.049008 0.010779 0.353725
-0.045095 0.010602 0.348067
-0.041315 0.010433 0.342641
-0.038819 0.010587 0.347810
-0.035857 0.010629 0.349323
-0.033022 0.010721 0.352450
-0.029638 0.010635 0.349722
-0.026268 0.010535 0.346506
-0.023706 0.010775 0.354481
-0.019982 0.010480 0.344818
-0.018664 0.011568 0.380695
-0.013841 0.010486 0.345119
-0.010497 0.010224 0.336545
-0.007157 0.009759 0.321266
-0.004496 0.010218 0.336404
-0.001458 0.009944 0.327378
0.001435 0.009786 0.322165
0.004401 0.010002 0.329272
0.007141 0.009737 0.320534
0.010058 0.009796 0.322469
0.012973 0.009828 0.323463
0.015749 0.009761 0.321234
0.018786 0.009853 0.324186
0.022425 0.010193 0.335320
-0.052824 0.014032 0.357967
-0.048810 0.013802 0.352260
-0.044100 0.013330 0.340347
-0.041679 0.013532 0.345625
-0.039308 0.013783 0.352158
-0.034571 0.013176 0.336759
-0.031830 0.013287 0.339692
-0.029671 0.013689 0.350072
-0.026387 0.013607 0.348043
-0.023775 0.013894 0.355469
-0.020231 0.013642 0.349095
-0.017160 0.013675 0.349992
-0.014286 0.013914 0.356159
-0.010820 0.013549 0.346861
-0.007489 0.013130 0.336158
-0.004389 0.012825 0.328350
-0.001426 0.012504 0.320149
0.001487 0.013032 0.333679
0.004295 0.012550 0.321312
0.007102 0.012452 0.318793
0.010153 0.012714 0.325479
0.012941 0.012605 0.322635
0.015889 0.012662 0.324060
0.018703 0.012612 0.322719
0.022622 0.013220 0.338229
-0.055105 0.017891 0.373383
-0.047293 0.016345 0.341266
-0.045568 0.016835 0.351639
-0.040783 0.016183 0.338146
-0.039704 0.017015 0.355659
-0.035580 0.016574 0.346542
-0.032487 0.016575 0.346661
-0.029802 0.016805 0.351580
-0.026913 0.016961 0.354928
-0.023037 0.016455 0.344394
-0.020147 0.016604 0.347596
-0.017832 0.017368 0.363643
-0.013809 0.016440 0.344246
-0.011036 0.016892 0.353763
-0.007430 0.015922 0.333474
-0.004493 0.016046 0.336085
-0.001430 0.015322 0.320942
0.001461 0.015650 0.327796
0.004308 0.015387 0.322287
0.007176 0.015377 0.322053
0.010179 0.015579 0.326270
0.012974 0.015445 0.323427
0.015746 0.015337 0.321108
0.018899 0.015576 0.326065
0.022122 0.015801 0.330717
-0.052435 0.020119 0.355233
-0.050050 0.020443 0.361109
-0.045661 0.019936 0.352297
-0.041952 0.019674 0.347789
-0.038577 0.019539 0.345513
-0.035774 0.019695 0.348385
-0.032861 0.019814 0.350598
-0.030110 0.020066 0.355153
-0.027105 0.020189 0.357410
-0.024121 0.020362 0.360553
-0.022414 0.021832 0.386651
-0.017961 0.020674 0.366216
-0.014007 0.019706 0.349111
-0.011104 0.020086 0.355886
-0.007339 0.018585 0.329305
-0.004525 0.019097 0.338400
-0.001477 0.018706 0.331484
0.001441 0.018247 0.323355
0.004321 0.018236 0.323146
0.007119 0.018028 0.319442
0.010030 0.018144 0.321466
0.013208 0.018583 0.329214
0.016166 0.018609 0.329631
0.018814 0.018325 0.324550
0.021951 0.018529 0.328107
-0.053123 0.023519 0.359834
-0.049795 0.023468 0.359202
-0.046185 0.023268 0.356277
-0.043796 0.023699 0.363015
-0.040884 0.023893 0.366110
-0.035948 0.022835 0.350019
-0.033864 0.023560 0.361231
-0.030138 0.023175 0.355422
-0.027130 0.023316 0.357677
-0.024107 0.023480 0.360272
-0.020832 0.023412 0.359287
-0.017811 0.023657 0.363105
-0.014690 0.023847 0.366077
-0.010762 0.022461 0.344840
-0.007605 0.022221 0.341180
-0.004417 0.021510 0.330279
-0.001503 0.021963 0.337244
0.001455 0.021261 0.326471
0.004407 0.021462 0.329549
0.007322 0.021395 0.328493
0.010312 0.021522 0.330422
0.012812 0.020799 0.319280
0.015959 0.021197 0.325354
0.018934 0.021280 0.326567
0.021907 0.021337 0.327388
-0.051116 0.025648 0.346170
-0.050640 0.027048 0.365224
-0.046952 0.026808 0.362127
-0.041833 0.025655 0.346674
-0.040452 0.026792 0.362173
-0.035748 0.025735 0.347994
-0.033791 0.026643 0.360378
-0.030288 0.026395 0.357118
-0.026926 0.026226 0.354915
-0.023714 0.026177 0.354321
-0.021357 0.027202 0.368271
-0.017326 0.026080 0.353136
-0.014435 0.026558 0.359658
-0.011102 0.026261 0.355668
-0.007388 0.024467 0.331397
-0.004415 0.024368 0.330081
-0.001400 0.023177 0.313958
0.001489 0.024652 0.333939
0.004394 0.024254 0.328530
0.007103 0.023524 0.318626
0.010103 0.023897 0.323658
0.013100 0.024101 0.326381
0.015564 0.023428 0.317230
0.019186 0.024437 0.330834
0.022501 0.024838 0.336204
-0.052745 0.029579 0.357123
-0.051081 0.030494 0.368320
-0.046415 0.029620 0.357904
-0.041443 0.028406 0.343363
-0.039665 0.029362 0.355042
-0.036319 0.029223 0.353474
-0.033435 0.029465 0.356504
-0.030213 0.029427 0.356150
-0.026314 0.028645 0.346766
-0.023703 0.029243 0.354081
-0.020381 0.029013 0.351365
-0.017877 0.030075 0.364281
-0.014473 0.029760 0.360508
-0.010468 0.027675 0.335286
-0.007600 0.028130 0.340836
-0.004297 0.026508 0.321197
-0.001518 0.028090 0.340369
0.001467 0.027149 0.328972
0.004416 0.027238 0.330040
0.007206 0.026671 0.323151
0.010132 0.026787 0.324532
0.012933 0.026593 0.322152
0.015736 0.026474 0.320659
0.018618 0.026503 0.320962
0.022278 0.027485 0.332793
-0.053971 0.033452 0.365329
-0.053159 0.035075 0.383208
-0.046721 0.032953 0.360167
-0.043115 0.032662 0.357127
-0.038967 0.031882 0.348710
-0.036478 0.032440 0.354931
-0.033461 0.032591 0.356691
-0.029689 0.031962 0.349891
-0.027515 0.033105 0.362496
-0.023947 0.032654 0.357634
-0.021036 0.033098 0.362562
-0.017908 0.033299 0.364827
-0.015266 0.034695 0.380175
-0.011160 0.032609 0.357346
-0.007349 0.030062 0.329467
-0.004447 0.030323 0.332343
-0.001500 0.030690 0.336378
0.001474 0.030158 0.330547
0.004358 0.029716 0.325693
0.007202 0.029464 0.322909
0.010187 0.029766 0.326201
0.012927 0.029378 0.321910
0.015956 0.029669 0.325059
0.018909 0.029751 0.325906
0.022078 0.030106 0.329725
-0.058333 0.039600 0.394751
-0.051791 0.037426 0.373244
-0.045805 0.035383 0.353010
-0.043201 0.035844 0.357738
-0.039472 0.035370 0.353128
-0.036756 0.035800 0.357537
-0.032575 0.034750 0.347152
-0.029596 0.034896 0.348696
-0.027114 0.035729 0.357114
-0.024883 0.037162 0.371509
-0.021742 0.037466 0.374623
-0.017818 0.036287 0.362889
-0.014874 0.037024 0.370310
-0.011480 0.036741 0.367515
-0.007544 0.033799 0.338114
-0.004316 0.032228 0.322420
-0.001438 0.032221 0.322354
0.001496 0.033513 0.335281
0.004428 0.033065 0.330795
0.007176 0.032152 0.321641
0.010193 0.032620 0.326296
0.012657 0.031504 0.315095
0.015862 0.032305 0.323063
0.018777 0.032358 0.323546
0.022109 0.033019 0.330089
-0.053603 0.039553 0.362634
-0.050647 0.039782 0.364892
-0.048903 0.041062 0.376778
-0.044124 0.039794 0.365273
-0.041450 0.040372 0.370710
-0.037851 0.040072 0.368074
-0.033908 0.039317 0.361239
-0.031225 0.040018 0.367778
-0.027359 0.039188 0.360239
-0.024388 0.039589 0.364006
-0.021265 0.039831 0.366296
-0.017754 0.039300 0.361473
-0.014716 0.039814 0.366251
-0.011601 0.040356 0.371276
-0.007535 0.036696 0.337628
-0.004543 0.036878 0.339319
-0.001476 0.035941 0.330705
0.001476 0.035931 0.330614
0.004509 0.036601 0.336772
0.007271 0.035411 0.325807
0.010155 0.035327 0.325003
0.013160 0.035606 0.327535
0.016049 0.035527 0.326770
0.018872 0.035348 0.325072
0.022089 0.035859 0.329702
-0.050844 0.040518 0.343855
-0.050527 0.042863 0.363909
-0.049562 0.044945 0.381730
-0.044532 0.043374 0.368528
-0.040110 0.042192 0.358610
-0.037677 0.043080 0.366271
-0.035432 0.044371 0.377354
-0.030198 0.041797 0.355559
-0.026543 0.041061 0.349379
-0.024870 0.043603 0.371086
-0.021030 0.042542 0.362129
-0.018028 0.043099 0.366930
-0.014363 0.041970 0.357360
-0.011991 0.045050 0.383629
-0.007946 0.041793 0.355922
-0.004458 0.039077 0.332810
-0.001469 0.038631 0.329020
0.001470 0.038663 0.329292
0.004455 0.039056 0.332628
0.007196 0.037846 0.322310
0.010123 0.038032 0.323869
0.012823 0.037470 0.319045
0.016003 0.038260 0.325726
0.019381 0.039207 0.333736
0.022586 0.039597 0.336997
-0.053173 0.045513 0.359482
-0.052827 0.048134 0.380344
-0.046710 0.045496 0.359637
-0.043902 0.045928 0.363187
-0.040788 0.046085 0.364550
-0.036741 0.045121 0.357039
-0.034405 0.046277 0.366295
-0.030384 0.045170 0.357629
-0.026965 0.044803 0.354806
-0.023687 0.044605 0.353309
-0.021242 0.046154 0.365647
-0.017864 0.045871 0.363463
-0.014857 0.046627 0.369501
-0.011453 0.046213 0.366261
-0.007740 0.043724 0.346565
-0.004586 0.043179 0.342263
-0.001510 0.042643 0.338024
0.001486 0.041968 0.332669
0.004505 0.042412 0.336182
0.007361 0.041583 0.329595
0.010193 0.041130 0.325979
0.013350 0.041900 0.332043
0.016179 0.041546 0.329193
0.018699 0.040629 0.321878
0.022394 0.042169 0.334018
-0.049805 0.048510 0.358454
-0.047832 0.049801 0.368138
-0.043227 0.048341 0.357470
-0.041575 0.050213 0.371442
-0.035840 0.047051 0.348161
-0.034711 0.049907 0.369406
-0.031214 0.049604 0.367257
-0.027165 0.048248 0.357301
-0.024282 0.048879 0.362050
-0.021415 0.049740 0.368495
-0.019556 0.053679 0.397739
-0.015079 0.050587 0.374885
-0.011461 0.049436 0.366394
-0.008202 0.049530 0.367115
-0.004940 0.049718 0.368533
-0.001543 0.046578 0.345261
0.001465 0.044229 0.327852
0.004440 0.044692 0.331272
0.007596 0.045873 0.340012
0.010123 0.043665 0.323619
0.013293 0.044597 0.330493
0.016350 0.044879 0.332536
0.018811 0.043692 0.323689
0.022189 0.044665 0.330839
-0.051390 0.056958 0.395362
-0.046390 0.055225 0.383479
-0.041754 0.053682 0.372890
-0.039152 0.054714 0.380178
-0.036675 0.056134 0.390155
-0.031182 0.052749 0.366729
-0.028407 0.053709 0.373490
-0.025336 0.054290 0.377611
-0.022160 0.054791 0.381164
-0.019642 0.057395 0.399344
-0.015493 0.055330 0.385024
-0.011729 0.053859 0.374826
-0.007805 0.050173 0.349202
-0.004816 0.051596 0.359127
-0.001530 0.049192 0.342402
0.001534 0.049296 0.343127
0.004614 0.049436 0.344096
0.007422 0.047714 0.332091
0.010163 0.046666 0.324771
0.013585 0.048516 0.337608
0.016506 0.048230 0.335576
0.019322 0.047773 0.332343
0.022032 0.047210 0.328365
-0.051335 0.060345 0.394773
-0.045862 0.057906 0.378953
-0.042373 0.057780 0.378261
-0.037441 0.055494 0.363411
-0.035475 0.057588 0.377233
-0.032351 0.058045 0.380324
-0.029220 0.058595 0.384020
-0.025515 0.057986 0.380110
-0.021790 0.057140 0.374631
-0.019217 0.059555 0.390527
-0.015458 0.058551 0.383993
-0.011417 0.055600 0.364678
-0.008182 0.055788 0.365939
-0.004847 0.055077 0.361294
-0.001543 0.052612 0.345133
0.001565 0.053356 0.350017
0.004614 0.052430 0.343930
0.007539 0.051404 0.337185
0.010225 0.049797 0.326619
0.013588 0.051468 0.337541
0.017137 0.053108 0.348249
0.019001 0.049827 0.326685
0.022601 0.051365 0.336703
-0.049098 0.061014 0.377405
-0.046495 0.062058 0.384007
-0.041651 0.060041 0.371650
-0.039251 0.061501 0.380806
-0.035012 0.060084 0.372141
-0.032031 0.060755 0.376394
-0.028029 0.059417 0.368193
-0.026563 0.063819 0.395552
-0.022416 0.062140 0.385220
-0.018214 0.059672 0.369974
-0.015306 0.061288 0.380048
-0.011684 0.060151 0.373035
-0.008040 0.057948 0.359397
-0.005010 0.060181 0.373272
-0.001576 0.056792 0.352256
0.001494 0.053836 0.333921
0.004679 0.056206 0.348616
0.007658 0.055196 0.342331
0.010838 0.055799 0.346042
0.013423 0.053749 0.333297
0.016362 0.053604 0.332355
0.019677 0.054547 0.338149
0.023234 0.055822 0.345984
-0.057772 0.075674 0.443875
-0.045507 0.064023 0.375674
-0.042517 0.064602 0.379194
-0.038566 0.063695 0.373987
-0.035554 0.064312 0.377722
-0.031955 0.063887 0.375322
-0.029297 0.065463 0.384671
-0.026000 0.065842 0.386983
-0.022636 0.066142 0.388817
-0.017970 0.062057 0.364856
-0.014166 0.059789 0.351571
-0.011277 0.061197 0.359886
-0.008046 0.061130 0.359520
-0.004668 0.059112 0.347671
-0.001614 0.061293 0.360506
0.001566 0.059468 0.349773
0.004607 0.058330 0.343072
0.007663 0.058217 0.342387
0.010848 0.058867 0.346182
0.013559 0.057230 0.336521
0.016857 0.058211 0.342244
0.019574 0.057197 0.336230
0.022777 0.057681 0.339015
-0.046784 0.069195 0.386026
-0.044452 0.071007 0.396265
-0.040414 0.070169 0.391710
-0.037579 0.071462 0.399041
-0.034064 0.071595 0.399893
-0.029952 0.070359 0.393080
-0.025847 0.068813 0.384520
-0.022001 0.067583 0.377718
-0.018941 0.068763 0.384373
-0.014863 0.065948 0.368686
-0.011785 0.067234 0.375913
-0.008466 0.067614 0.378072
-0.004891 0.065109 0.364083
-0.001610 0.064275 0.359429
0.001575 0.062906 0.351774
0.004586 0.061051 0.341390
0.007621 0.060868 0.340346
0.010662 0.060826 0.340086
0.013894 0.061650 0.344658
0.016401 0.059542 0.332829
0.019990 0.061406 0.343192
0.022350 0.059501 0.332490