ply
format ascii 1.0
element vertex 612
property float x
property float y
property float z
end_header
-0.026506 -0.046198 0.311669
-0.022697 -0.044214 0.298353
-0.021235 -0.046881 0.316421
-0.018536 -0.047220 0.318763
-0.015365 -0.046257 0.312315
-0.012637 -0.046497 0.313976
-0.009754 -0.046145 0.311632
-0.007110 -0.047090 0.318039
-0.004283 -0.047282 0.319356
-0.001381 -0.045717 0.308793
0.001405 -0.046535 0.314313
0.004212 -0.046492 0.314017
0.006999 -0.046353 0.313063
0.009845 -0.046574 0.314527
0.012542 -0.046149 0.311624
0.014787 -0.044517 0.300564
0.018321 -0.046671 0.315059
0.020738 -0.045784 0.309016
0.024736 -0.048186 0.325156
0.027763 -0.048390 0.326459
0.030263 -0.047724 0.321877
-0.026243 -0.043050 0.308712
-0.023086 -0.042327 0.303600
-0.021095 -0.043832 0.314460
-0.018115 -0.043432 0.311648
-0.015725 -0.044555 0.319760
-0.012650 -0.043810 0.314454
-0.009969 -0.044387 0.318628
-0.007085 -0.044167 0.317073
-0.004174 -0.043364 0.311324
-0.001373 -0.042798 0.307271
0.001385 -0.043164 0.309899
0.004176 -0.043389 0.311505
0.007016 -0.043738 0.313993
0.009753 -0.043428 0.311745
0.012563 -0.043507 0.312281
0.015133 -0.042878 0.307723
0.017984 -0.043117 0.309387
0.020810 -0.043240 0.310210
0.024543 -0.044998 0.322756
0.026919 -0.044158 0.316658
0.029906 -0.044387 0.318213
0.033617 -0.045556 0.326502
-0.026578 -0.040875 0.312776
-0.023503 -0.040398 0.309198
-0.021074 -0.041053 0.314281
-0.018508 -0.041601 0.318530
-0.015389 -0.040880 0.313063
-0.012595 -0.040891 0.313187
-0.009925 -0.041432 0.317366
-0.006837 -0.039958 0.306104
-0.004357 -0.042437 0.325111
-0.001408 -0.041137 0.315158
0.001364 -0.039870 0.305451
0.004118 -0.040105 0.307241
0.007040 -0.041142 0.315174
0.009670 -0.040367 0.309205
0.012318 -0.039991 0.306298
0.015318 -0.040691 0.311613
0.018161 -0.040820 0.312553
0.021609 -0.042094 0.322247
0.024232 -0.041651 0.318787
0.027439 -0.042198 0.322901
0.031185 -0.043392 0.331950
0.033894 -0.043060 0.329316
0.036041 -0.042125 0.322063
-0.026121 -0.037493 0.307504
-0.023245 -0.037290 0.305911
-0.021029 -0.038233 0.313716
-0.018184 -0.038148 0.313074
-0.015209 -0.037707 0.309503
-0.012793 -0.038767 0.318246
-0.009751 -0.037990 0.311901
-0.007136 -0.038925 0.319602
-0.004197 -0.038155 0.313296
-0.001377 -0.037560 0.308416
0.001394 -0.038013 0.312140
0.004209 -0.038265 0.314204
0.006930 -0.037797 0.310341
0.009947 -0.038753 0.318165
0.012823 -0.038855 0.318972
0.015481 -0.038381 0.315036
0.018284 -0.038358 0.314796
0.020634 -0.037516 0.307826
0.023651 -0.037941 0.311254
0.027458 -0.039413 0.323251
0.030333 -0.039393 0.322996
0.032942 -0.039061 0.320187
0.035371 -0.038585 0.316184
0.034338 -0.034684 0.284121
-0.026731 -0.035628 0.314790
-0.023660 -0.035245 0.311478
-0.021481 -0.036265 0.320564
-0.018360 -0.035765 0.316204
-0.015050 -0.034647 0.306365
-0.012313 -0.034646 0.306395
-0.009681 -0.035023 0.309763
-0.007021 -0.035563 0.314563
-0.004251 -0.035885 0.317431
-0.001394 -0.035301 0.312274
0.001394 -0.035311 0.312365
0.004226 -0.035669 0.315522
0.007095 -0.035932 0.317835
0.009794 -0.035434 0.313398
0.012532 -0.035262 0.311846
0.015157 -0.034893 0.308544
0.017843 -0.034759 0.307309
0.021225 -0.035834 0.316755
0.023432 -0.034906 0.308487
0.026054 -0.034726 0.306818
0.031254 -0.037690 0.332917
0.034732 -0.038241 0.337693
0.036384 -0.036856 0.325357
0.038385 -0.036003 0.317713
-0.026416 -0.032501 0.311186
-0.023254 -0.031976 0.306235
-0.020691 -0.032245 0.308880
-0.018129 -0.032598 0.312321
-0.015220 -0.032343 0.309924
-0.012222 -0.031744 0.304228
-0.009835 -0.032842 0.314783
-0.007004 -0.032743 0.313857
-0.004246 -0.033088 0.317183
-0.001363 -0.031865 0.305469
0.001377 -0.032179 0.308472
0.004257 -0.033173 0.318001
0.006904 -0.032278 0.309400
0.009954 -0.033241 0.318603
0.012499 -0.032465 0.311138
0.015282 -0.032476 0.311197
0.018514 -0.033290 0.318953
0.020703 -0.032264 0.309061
0.023206 -0.031910 0.305600
0.027040 -0.033268 0.318530
0.028400 -0.031613 0.302605
0.034204 -0.034764 0.332668
0.036943 -0.034543 0.330454
0.040340 -0.034926 0.334001
-0.026747 -0.030165 0.315175
-0.024157 -0.030449 0.318214
-0.020989 -0.029984 0.313417
-0.017881 -0.029473 0.308135
-0.015161 -0.029534 0.308827
-0.012642 -0.030099 0.314773
-0.009727 -0.029774 0.311414
-0.007186 -0.030798 0.322141
-0.004172 -0.029800 0.311719
-0.001379 -0.029557 0.309194
0.001329 -0.028469 0.297810
0.004132 -0.029512 0.308714
0.006890 -0.029527 0.308847
0.009655 -0.029557 0.309138
0.012525 -0.029820 0.311861
0.015304 -0.029813 0.311738
0.017706 -0.029186 0.305135
0.021342 -0.030488 0.318688
0.024115 -0.030397 0.317669
0.027071 -0.030530 0.318986
0.030177 -0.030792 0.321636
0.032259 -0.030054 0.313837
0.038249 -0.032784 0.342234
0.039970 -0.031722 0.331033
-0.026931 -0.027611 0.317421
-0.024231 -0.027766 0.319282
-0.021256 -0.027604 0.317484
-0.018048 -0.027045 0.311108
-0.015397 -0.027267 0.313714
-0.012670 -0.027424 0.315568
-0.009348 -0.026013 0.299361
-0.006958 -0.027110 0.312007
-0.004167 -0.027057 0.311418
-0.001377 -0.026829 0.308800
0.001363 -0.026552 0.305610
0.004056 -0.026337 0.303125
0.006804 -0.026508 0.305081
0.009646 -0.026844 0.308926
0.012506 -0.027068 0.311470
0.014669 -0.025977 0.298875
0.018439 -0.027630 0.317841
0.020586 -0.026734 0.307480
0.022797 -0.026122 0.300378
0.026630 -0.027303 0.313879
0.029920 -0.027755 0.318985
0.031502 -0.026681 0.306558
0.034878 -0.027177 0.312156
0.038549 -0.027813 0.319348
0.039592 -0.026595 0.305256
-0.026273 -0.024243 0.309740
-0.024063 -0.024817 0.317145
-0.020851 -0.024371 0.311521
-0.018389 -0.024800 0.317066
-0.015288 -0.024366 0.311569
-0.012471 -0.024294 0.310689
-0.009679 -0.024242 0.310059
-0.006964 -0.024417 0.312321
-0.004223 -0.024677 0.315654
-0.001390 -0.024371 0.311757
0.001356 -0.023772 0.304095
0.004231 -0.024727 0.316292
0.006884 -0.024139 0.308764
0.009685 -0.024257 0.310241
0.012567 -0.024480 0.313059
0.015301 -0.024388 0.311842
0.017544 -0.023661 0.302497
0.020888 -0.024414 0.312067
0.023960 -0.024710 0.315781
0.026543 -0.024492 0.312921
0.029653 -0.024756 0.316215
0.030958 -0.023598 0.301332
0.034408 -0.024130 0.308027
0.039037 -0.025348 0.323468
0.043928 -0.026557 0.338761
-0.027078 -0.022210 0.319304
-0.024660 -0.022606 0.325083
-0.020866 -0.021679 0.311811
-0.018307 -0.021946 0.315720
-0.015312 -0.021694 0.312132
-0.012586 -0.021794 0.313624
-0.009666 -0.021520 0.309709
-0.007007 -0.021840 0.314345
-0.004190 -0.021767 0.313300
-0.001408 -0.021939 0.315789
0.001365 -0.021273 0.306206
0.004157 -0.021595 0.310836
0.006944 -0.021644 0.311517
0.009564 -0.021292 0.306425
0.012740 -0.022060 0.317454
0.015505 -0.021966 0.316052
0.017922 -0.021484 0.309068
0.021128 -0.021951 0.315727
0.023846 -0.021860 0.314344
0.026284 -0.021558 0.309937
0.029265 -0.021718 0.312146
0.032323 -0.021901 0.314689
0.035497 -0.022127 0.317838
0.038070 -0.021973 0.315519
0.041916 -0.022525 0.323317
-0.026216 -0.018815 0.309202
-0.024007 -0.019256 0.316525
-0.020972 -0.019065 0.313445
-0.018203 -0.019094 0.313983
-0.015537 -0.019261 0.316778
-0.012533 -0.018988 0.312341
-0.009727 -0.018948 0.311709
-0.006880 -0.018762 0.308679
-0.004072 -0.018509 0.304528
-0.001399 -0.019070 0.313775
0.001407 -0.019193 0.315785
0.004148 -0.018853 0.310189
0.007095 -0.019350 0.318357
0.009844 -0.019175 0.315452
0.012745 -0.019310 0.317633
0.015318 -0.018989 0.312308
0.018182 -0.019072 0.313619
0.020758 -0.018871 0.310256
0.023599 -0.018929 0.311152
0.026147 -0.018765 0.308383
0.029489 -0.019148 0.314595
0.032568 -0.019309 0.317137
0.034993 -0.019087 0.313388
0.036640 -0.018505 0.303728
0.044655 -0.020997 0.344510
-0.026248 -0.016147 0.309626
-0.023676 -0.016278 0.312215
-0.021570 -0.016807 0.322441
-0.018183 -0.016348 0.313680
-0.015672 -0.016652 0.319579
-0.012709 -0.016505 0.316784
-0.009938 -0.016594 0.318528
-0.006949 -0.016244 0.311845
-0.004097 -0.015960 0.306413
-0.001408 -0.016451 0.315848
0.001409 -0.016470 0.316213
0.004204 -0.016379 0.314452
0.006935 -0.016211 0.311205
0.009593 -0.016018 0.307478
0.012496 -0.016229 0.311489
0.015475 -0.016443 0.315563
0.017665 -0.015882 0.304742
0.020637 -0.016080 0.308493
0.023710 -0.016302 0.312670
0.026402 -0.016242 0.311446
0.029337 -0.016328 0.313020
0.031664 -0.016091 0.308385
0.035673 -0.016678 0.319534
0.034530 -0.014948 0.286279
0.041605 -0.016768 0.321028
-0.025900 -0.013277 0.305564
-0.023537 -0.013485 0.310430
-0.021033 -0.013657 0.314457
-0.018531 -0.013884 0.319741
-0.015645 -0.013853 0.319072
-0.012562 -0.013595 0.313171
-0.009684 -0.013475 0.310438
-0.006981 -0.013600 0.313344
-0.004101 -0.013316 0.306814
-0.001385 -0.013487 0.310768
0.001385 -0.013487 0.310768
0.004202 -0.013641 0.314308
0.006975 -0.013588 0.313070
0.009847 -0.013701 0.315645
0.012324 -0.013337 0.307234
0.015470 -0.013698 0.315511
0.018262 -0.013682 0.315088
0.020984 -0.013626 0.313727
0.023088 -0.013228 0.304506
0.026525 -0.013598 0.312941
0.028910 -0.013409 0.308507
0.032971 -0.013962 0.321151
0.034608 -0.013483 0.310036
0.039332 -0.014189 0.326143
0.041405 -0.013906 0.319529
-0.026284 -0.010779 0.310132
-0.023874 -0.010943 0.314911
-0.021190 -0.011008 0.316844
-0.017975 -0.010774 0.310174
-0.015062 -0.010669 0.307216
-0.012495 -0.010818 0.311541
-0.009806 -0.010916 0.314381
-0.006940 -0.010816 0.311531
-0.004221 -0.010963 0.315786
-0.001402 -0.010925 0.314714
0.001385 -0.010789 0.310782
0.004174 -0.010842 0.312312
0.007077 -0.011028 0.317656
0.009390 -0.010452 0.301038
0.012242 -0.010599 0.305237
0.014905 -0.010558 0.304020
0.018028 -0.010806 0.311087
0.020879 -0.010846 0.312191
0.023349 -0.010702 0.307982
0.026400 -0.010827 0.311498
0.029283 -0.010865 0.312526
0.032128 -0.010885 0.312982
0.035722 -0.011134 0.320046
0.039352 -0.011357 0.326344
0.042236 -0.011348 0.325984
-0.026490 -0.008148 0.312582
-0.024044 -0.008266 0.317183
-0.020541 -0.008003 0.307163
-0.017676 -0.007946 0.305051
-0.015253 -0.008103 0.311134
-0.012633 -0.008203 0.315004
-0.009648 -0.008055 0.309345
-0.006891 -0.008054 0.309327
-0.004203 -0.008188 0.314497
-0.001384 -0.008091 0.310773
0.001386 -0.008098 0.311047
0.004125 -0.008036 0.308645
0.006864 -0.008023 0.308138
0.009597 -0.008012 0.307699
0.012354 -0.008022 0.308059
0.015441 -0.008203 0.314971
0.018052 -0.008115 0.311534
0.021005 -0.008183 0.314099
0.023519 -0.008085 0.310252
0.026590 -0.008179 0.313767
0.029442 -0.008193 0.314247
0.032554 -0.008272 0.317158
0.036397 -0.008508 0.326129
0.038823 -0.008403 0.321981
0.041139 -0.008290 0.317543
-0.027451 -0.005629 0.323944
-0.023287 -0.005337 0.307209
-0.021056 -0.005469 0.314888
-0.018149 -0.005439 0.313236
-0.015317 -0.005425 0.312472
-0.012330 -0.005338 0.307477
-0.009715 -0.005407 0.311506
-0.006834 -0.005325 0.306825
-0.004176 -0.005423 0.312453
-0.001393 -0.005428 0.312752
0.001405 -0.005475 0.315496
0.004119 -0.005350 0.308245
0.006783 -0.005286 0.304538
0.009812 -0.005461 0.314615
0.012466 -0.005396 0.310859
0.015232 -0.005395 0.310736
0.018086 -0.005420 0.312140
0.020427 -0.005306 0.305487
0.023508 -0.005387 0.310128
0.026871 -0.005510 0.317107
0.028899 -0.005362 0.308477
0.032035 -0.005426 0.312122
0.035570 -0.005543 0.318735
0.037338 -0.005388 0.309690
0.040557 -0.005449 0.313067
-0.027090 -0.002777 0.319696
-0.023710 -0.002717 0.312808
-0.020948 -0.002720 0.313280
-0.018341 -0.002748 0.316559
-0.015323 -0.002714 0.312598
-0.012595 -0.002726 0.314093
-0.009627 -0.002679 0.308706
-0.007002 -0.002728 0.314359
-0.004293 -0.002788 0.321270
-0.001382 -0.002692 0.310226
0.001397 -0.002722 0.313702
0.004176 -0.002712 0.312488
0.007000 -0.002727 0.314268
0.009610 -0.002674 0.308158
0.012405 -0.002685 0.309340
0.015323 -0.002714 0.312598
0.018019 -0.002700 0.310988
0.020850 -0.002708 0.311820
0.023606 -0.002705 0.311440
0.026626 -0.002730 0.314226
0.029047 -0.002694 0.310061
0.031449 -0.002664 0.306424
0.034852 -0.002716 0.312316
0.037921 -0.002736 0.314538
0.040795 -0.002740 0.314917
-0.026905 0.000000 0.317520
-0.023904 0.000000 0.315374
-0.020845 0.000000 0.311740
-0.018458 0.000000 0.318581
-0.015377 0.000000 0.313706
-0.012614 0.000000 0.314562
-0.009804 0.000000 0.314388
-0.006855 0.000000 0.307785
-0.004248 0.000000 0.317897
-0.001433 0.000000 0.321674
0.001395 0.000000 0.313165
0.004210 0.000000 0.315061
0.007047 0.000000 0.316383
0.009836 0.000000 0.315394
0.012570 0.000000 0.313465
0.015337 0.000000 0.312884
0.018231 0.000000 0.314653
0.020875 0.000000 0.312197
0.023510 0.000000 0.310174
0.026457 0.000000 0.312232
0.029320 0.000000 0.312987
0.031917 0.000000 0.310986
0.035614 0.000000 0.319147
0.038338 0.000000 0.318002
0.043123 0.000000 0.332893
-0.026951 0.002763 0.318055
-0.023807 0.002728 0.314085
-0.021326 0.002770 0.318940
-0.018257 0.002736 0.315098
-0.015547 0.002753 0.317167
-0.012408 0.002686 0.309431
-0.009736 0.002709 0.312181
-0.006984 0.002721 0.313536
-0.004175 0.002711 0.312397
-0.001421 0.002767 0.318917
0.001378 0.002684 0.309311
0.004150 0.002695 0.310567
0.006992 0.002724 0.313902
0.009949 0.002769 0.319039
0.012625 0.002733 0.314825
0.015511 0.002747 0.316436
0.018680 0.002799 0.322405
0.021082 0.002738 0.315288
0.023807 0.002728 0.314085
0.026611 0.002728 0.314044
0.029414 0.002728 0.313977
0.032523 0.002755 0.316890
0.036009 0.002806 0.322681
0.038436 0.002773 0.318807
0.039890 0.002679 0.307931
-0.026454 0.005425 0.312185
-0.023985 0.005497 0.316421
-0.021538 0.005594 0.322098
-0.018419 0.005520 0.317894
-0.015277 0.005411 0.311649
-0.012627 0.005466 0.314880
-0.009741 0.005421 0.312329
-0.006940 0.005408 0.311580
-0.004181 0.005429 0.312819
-0.001394 0.005429 0.312844
0.001433 0.005582 0.321625
0.004226 0.005488 0.316203
0.007022 0.005471 0.315238
0.009664 0.005378 0.309860
0.012459 0.005393 0.310676
0.015671 0.005550 0.319689
0.018742 0.005617 0.323464
0.020958 0.005444 0.313427
0.024241 0.005555 0.319796
0.026447 0.005423 0.312094
0.029027 0.005385 0.309844
0.032259 0.005464 0.314306
0.036026 0.005614 0.322826
0.038313 0.005528 0.317772
0.040392 0.005426 0.311797
-0.027293 0.008395 0.322060
-0.024390 0.008384 0.321743
-0.020852 0.008124 0.311817
-0.018645 0.008381 0.321760
-0.015651 0.008315 0.319264
-0.012593 0.008177 0.313999
-0.009677 0.008079 0.310259
-0.007117 0.008318 0.319476
-0.004263 0.008305 0.318978
-0.001412 0.008253 0.316992
0.001415 0.008269 0.317632
0.004310 0.008395 0.322454
0.006929 0.008099 0.311064
0.009602 0.008017 0.307882
0.012802 0.008313 0.319208
0.015575 0.008275 0.317711
0.018571 0.008348 0.320482
0.020956 0.008164 0.313369
0.024093 0.008282 0.317821
0.027246 0.008380 0.321513
0.029211 0.008129 0.311789
0.031994 0.008129 0.311700
0.035566 0.008314 0.318676
0.038308 0.008292 0.317713
0.041280 0.008319 0.318632
-0.026925 0.011042 0.317693
-0.023812 0.010914 0.314091
-0.021373 0.011103 0.319581
-0.018604 0.011151 0.321036
-0.015460 0.010952 0.315344
-0.012536 0.010853 0.312546
-0.009949 0.011074 0.318951
-0.007024 0.010946 0.315279
-0.004223 0.010969 0.315969
-0.001398 0.010894 0.313799
0.001420 0.011065 0.318737
0.004289 0.011141 0.320906
0.007062 0.011006 0.317016
0.009963 0.011090 0.319408
0.012682 0.010980 0.316200
0.015613 0.011060 0.318449
0.018414 0.011037 0.317750
0.021184 0.011004 0.316753
0.024379 0.011174 0.321567
0.026663 0.010935 0.314596
0.029812 0.011062 0.318170
0.033165 0.011236 0.323078
0.034778 0.010840 0.311595
0.038312 0.011057 0.317720
0.041014 0.011020 0.316553
-0.026417 0.013542 0.311666
-0.024346 0.013949 0.321094
-0.021478 0.013947 0.321115
-0.018441 0.013817 0.318190
-0.015721 0.013920 0.320624
-0.012584 0.013619 0.313719
-0.009795 0.013630 0.314001
-0.007150 0.013929 0.320929
-0.004274 0.013875 0.319700
-0.001392 0.013558 0.312414
0.001399 0.013630 0.314059
0.004266 0.013851 0.319152
0.007047 0.013727 0.316269
0.009804 0.013641 0.314275
0.012767 0.013817 0.318285
0.015614 0.013825 0.318433
0.018568 0.013912 0.320380
0.021588 0.014018 0.322756
0.023454 0.013438 0.309336
0.026201 0.013432 0.309116
0.030027 0.013927 0.320429
0.033344 0.014120 0.324788
0.035734 0.013922 0.320120
0.038348 0.013834 0.317976
0.041358 0.013891 0.319166
-0.027876 0.017148 0.328835
-0.023614 0.016235 0.311395
-0.021393 0.016670 0.319797
-0.018521 0.016652 0.319518
-0.015466 0.016434 0.315381
-0.012489 0.016219 0.311307
-0.009969 0.016646 0.319533
-0.007218 0.016872 0.323902
-0.004174 0.016260 0.312168
-0.001423 0.016632 0.319319
0.001416 0.016551 0.317766
0.004232 0.016489 0.316553
0.007059 0.016501 0.316777
0.009975 0.016655 0.319715
0.012690 0.016481 0.316328
0.015618 0.016595 0.318484
0.018410 0.016552 0.317603
0.021320 0.016613 0.318703
0.024380 0.016762 0.321508
0.026634 0.016384 0.314178
0.029755 0.016561 0.317477
0.033820 0.017187 0.329380
0.035765 0.016721 0.320351
0.037199 0.016103 0.308412
0.041100 0.016565 0.317132
-0.026471 0.018998 0.312205
-0.023364 0.018741 0.308056
-0.021423 0.019475 0.320187
-0.018827 0.019748 0.324741
-0.015555 0.019283 0.317142
-0.012705 0.019249 0.316629
-0.009886 0.019259 0.316821
-0.007000 0.019090 0.314066
-0.004305 0.019569 0.321969
-0.001378 0.018787 0.309118
0.001421 0.019376 0.318798
0.004255 0.019341 0.318225
0.007047 0.019217 0.316166
0.010012 0.019503 0.320837
0.012617 0.019116 0.314439
0.015519 0.019238 0.316413
0.018933 0.019859 0.326564
0.021398 0.019453 0.319823
0.024469 0.019627 0.322626
0.026957 0.019347 0.317937
0.029438 0.019115 0.314049
0.033809 0.020045 0.329220
0.035155 0.019175 0.314840
0.039889 0.020145 0.330656
0.037717 0.017735 0.290986
