ply
format ascii 1.0
element vertex 1480
property float x
property float y
property float z
end_header
54.458698 135.248001 129.718994
88.335602 98.616600 228.794006
146.128998 176.529007 130.899002
55.321999 152.091003 212.255005
195.667007 110.478996 239.093002
121.361000 158.723007 146.231003
51.415901 151.759995 204.024994
79.676498 193.714996 228.794006
96.591797 118.735001 245.932999
55.685101 136.729004 204.024994
171.011002 201.501999 178.934998
71.823097 143.503998 99.425003
121.361000 242.578995 198.880005
75.525597 102.223000 212.281006
104.545998 77.306702 154.488007
84.269501 126.990997 129.718994
96.591797 217.809998 223.076996
129.617004 226.065994 208.095993
154.384995 77.454002 206.123001
175.945999 193.041000 179.255997
137.873001 216.056000 212.281006
121.379997 94.059196 137.966995
195.667007 158.473007 228.794006
146.128998 110.478996 238.979996
179.281998 184.785004 178.942993
78.566200 102.223000 220.537003
129.617004 207.039001 154.488007
71.823097 254.988007 162.744003
88.335602 243.988007 204.024994
212.179001 151.132996 237.050003
162.641998 183.916000 146.231003
154.384995 110.478996 149.018997
137.873001 207.912003 220.537003
88.335602 88.261299 179.255997
52.810501 234.322006 187.511993
121.361000 126.836998 146.287994
122.345001 226.065994 162.315002
71.859802 127.181000 228.757004
80.079300 261.720001 179.255997
179.154007 164.455994 171.000000
121.361000 102.223000 239.255997
55.310600 231.470001 195.768997
74.316200 160.016006 104.949997
206.445999 126.990997 195.768997
113.103996 126.778999 146.436005
96.591797 117.435997 245.306000
137.873001 69.270798 178.703003
179.154007 56.723900 154.488007
96.591797 118.735001 143.393005
203.923004 110.478996 178.052994
96.591797 82.015800 171.000000
154.384995 184.785004 232.759995
195.667007 58.401600 154.488007
129.617004 143.503998 156.987000
63.566898 187.572998 220.537003
195.667007 139.425003 187.511993
179.154007 69.197800 130.998001
104.848000 250.835007 163.865997
150.903000 201.298004 220.537003
47.054401 158.039993 187.511993
129.617004 184.785004 237.802002
109.269997 193.041000 137.975006
45.859798 209.554001 146.231003
154.384995 126.990997 243.509003
187.410004 90.789101 228.794006
68.033203 118.735001 220.537003
187.410004 66.316704 195.768997
49.126900 226.065994 171.000000
55.310600 234.322006 159.875000
212.179001 79.199600 220.537003
49.980400 143.503998 113.206001
137.873001 126.990997 248.203003
104.848000 234.322006 210.348007
216.981995 110.478996 237.050003
80.079300 242.578995 148.772003
96.591797 84.231400 204.024994
93.502800 151.759995 129.718994
96.396301 102.156998 237.085999
88.335602 226.065994 215.537994
96.591797 88.900597 220.537003
45.313400 168.272995 121.462997
170.897995 206.742004 187.511993
55.310600 133.625000 187.511993
38.798199 193.041000 156.244003
96.591797 234.322006 210.972000
203.923004 80.983498 154.488007
121.361000 147.639008 162.744003
212.179001 74.886299 212.281006
162.641998 162.835007 237.050003
91.596497 85.710297 171.000000
187.410004 69.197800 200.445999
113.103996 102.223000 134.964005
36.704601 193.041000 162.744003
113.103996 234.106003 162.813004
97.462196 259.091003 162.744003
220.434998 97.862198 204.024994
104.848000 85.710297 132.242996
63.452000 209.554001 212.281006
80.949600 168.272995 237.050003
49.830399 217.809998 195.768997
71.823097 121.521004 121.462997
212.179001 61.826199 171.000000
137.873001 226.065994 201.434006
190.580002 118.735001 171.000000
148.839996 217.809998 195.768997
139.184998 201.298004 154.488007
162.628998 159.949997 162.748993
195.667007 93.966499 232.031006
220.434998 85.710297 175.156006
162.641998 118.735001 242.339005
212.179001 106.372002 195.768997
228.692001 68.956802 197.209000
207.908997 110.478996 187.511993
79.836601 192.936005 138.050003
170.897995 77.787598 212.281006
137.873001 160.016006 244.606995
117.485001 176.529007 129.718994
170.897995 110.478996 241.296997
191.688004 135.248001 179.255997
146.128998 102.223000 234.300995
162.641998 186.188004 228.794006
174.167999 126.990997 162.744003
129.570007 69.189400 154.406006
94.675400 118.735001 245.306000
95.238998 135.248001 139.020996
223.091995 77.454002 162.744003
71.823097 151.759995 99.707802
154.384995 193.207993 162.404999
129.617004 157.104996 245.306000
113.103996 81.845802 212.281006
220.434998 118.735001 217.365005
113.103996 155.207993 154.488007
137.281998 160.343002 146.231003
235.175003 85.710297 228.794006
228.692001 85.710297 189.973999
162.641998 59.402699 146.231003
203.923004 93.966499 233.171997
162.641998 118.735001 154.955002
76.200699 102.223000 171.000000
154.384995 118.735001 241.955002
170.897995 160.016006 166.332993
170.897995 184.785004 166.531006
116.121002 184.785004 129.718994
236.947998 82.042099 212.281006
88.335602 226.065994 157.209000
121.408997 201.287994 137.992996
170.897995 93.569901 228.794006
104.848000 114.341003 245.306000
88.862999 102.223000 129.996002
119.955002 151.759995 162.744003
113.103996 201.298004 143.291000
63.578098 250.826004 179.255997
47.054401 212.389999 146.231003
129.617004 238.677002 195.768997
129.617004 242.578995 182.242996
71.823097 176.529007 229.311005
50.981300 143.503998 179.255997
80.079300 110.478996 135.003006
162.641998 92.434502 137.975006
80.079300 118.735001 235.451004
212.179001 93.966499 174.432007
63.835800 119.396004 212.281006
47.064602 209.485001 195.737000
113.103996 163.255997 245.306000
137.873001 203.003998 146.231003
162.641998 209.554001 193.218002
67.805901 234.322006 146.231003
83.613403 93.966499 146.231003
129.617004 217.809998 165.059998
63.566898 180.524994 113.206001
74.612198 118.735001 228.794006
137.873001 69.197800 134.626007
228.692001 82.328598 179.255997
121.361000 81.106499 212.281006
235.809998 77.454002 179.255997
224.725998 110.478996 220.537003
113.103996 93.966499 230.238998
203.923004 143.503998 200.455994
80.079300 167.688004 236.910004
36.365002 184.785004 162.744003
71.823097 160.016006 102.922997
96.591797 82.292503 187.511993
202.139999 60.941502 154.488007
68.167198 168.272995 104.949997
96.591797 82.057404 179.255997
113.103996 169.095001 137.975006
168.625000 176.529007 154.488007
52.323700 209.554001 204.024994
154.384995 212.863007 195.768997
179.154007 57.476898 146.231003
104.848000 209.554001 227.220993
203.923004 151.759995 208.932007
134.860992 77.454002 129.718994
105.765999 166.427994 137.975006
74.096298 259.091003 171.000000
203.923004 77.454002 150.156998
131.408997 209.554001 162.744003
96.591797 217.809998 159.401001
162.641998 102.223000 145.102005
50.104401 226.065994 162.744003
80.079300 132.093994 113.206001
146.128998 201.298004 222.972000
187.410004 157.690002 212.281006
196.733994 110.478996 170.445007
179.376999 193.667999 186.608002
63.566898 226.065994 143.005997
236.865005 69.225998 187.511993
104.848000 92.223999 228.794006
71.823097 209.554001 143.181000
74.439598 250.835007 154.488007
220.434998 91.336502 187.511993
80.192703 242.550003 203.998993
45.717098 217.809998 179.255997
47.054401 201.298004 199.141998
146.128998 94.837097 227.610992
203.863007 118.597000 187.703003
100.394997 126.990997 146.231003
82.252602 135.248001 113.206001
134.391998 184.785004 237.050003
63.566898 168.272995 224.270004
170.897995 111.667000 154.488007
196.516998 94.647003 162.292999
204.358002 60.912102 179.487000
203.923004 70.696899 204.024994
203.923004 154.600006 212.281006
220.434998 93.966499 236.052994
133.725998 234.322006 195.768997
203.923004 85.710297 159.682007
80.079300 176.529007 233.802994
63.566898 135.248001 222.184998
45.669201 160.016006 137.975006
48.740398 151.759995 195.768997
159.488998 93.966499 228.794006
96.670998 143.121994 137.865997
137.873001 72.173798 129.718994
55.310600 224.369003 146.231003
42.238701 176.529007 187.511993
71.823097 116.261002 129.718994
58.885399 126.990997 121.462997
136.876007 68.626701 137.975006
96.591797 201.298004 148.766006
80.079300 98.331902 154.488007
96.591797 151.759995 134.102997
67.609100 143.503998 96.693901
162.641998 85.491699 220.757004
146.128998 66.577202 179.255997
179.154007 196.977997 195.768997
109.665001 259.091003 179.255997
236.947998 81.388496 187.511993
193.600006 85.710297 154.488007
129.617004 102.223000 140.606995
80.079300 176.529007 124.405998
44.258400 168.272995 187.511993
137.873001 231.815994 187.511993
111.353996 151.759995 154.488007
173.947006 143.503998 162.744003
212.179001 160.016006 232.233994
187.766998 160.016006 179.337997
47.047401 159.981003 121.462997
165.792007 151.759995 162.744003
64.746902 119.641998 129.718994
103.758003 143.503998 146.231003
71.823097 107.007004 212.281006
55.310600 134.076996 179.255997
104.848000 217.809998 159.072006
146.128998 154.876007 245.306000
127.401001 77.454002 137.975006
45.102299 176.529007 121.462997
129.617004 73.791901 195.768997
170.897995 135.248001 161.279007
184.481003 135.248001 171.000000
210.173996 110.478996 195.768997
137.873001 202.220993 154.488007
96.591797 232.570007 212.281006
137.873001 226.065994 177.339996
118.771004 77.454002 204.024994
122.908997 234.977005 204.024994
120.829002 160.016006 146.231003
96.591797 160.016006 244.585007
113.103996 118.735001 140.667999
96.449997 168.272995 129.835999
104.848000 76.831902 162.744003
58.936600 126.990997 179.255997
104.848000 135.248001 149.554993
129.485992 151.759995 162.744003
63.566898 250.835007 171.740005
203.923004 126.990997 191.949997
129.617004 160.016006 244.658997
96.591797 242.578995 205.035004
72.225098 234.511002 146.167999
146.128998 143.503998 247.466003
88.335602 217.809998 156.817001
71.823097 168.272995 109.889999
93.316299 85.710297 137.975006
88.335602 151.759995 243.070999
51.154800 143.503998 195.768997
55.310600 160.016006 91.718300
69.850998 110.478996 162.744003
88.335602 260.489990 162.744003
170.897995 83.842201 220.537003
96.591797 234.322006 159.856003
54.601002 176.529007 212.970001
137.873001 133.214996 154.488007
137.873001 143.503998 246.998001
228.692001 77.454002 221.744003
184.410995 102.223000 237.050003
80.079300 217.809998 152.070999
88.335602 118.735001 242.716995
104.602997 259.053986 187.429993
146.128998 93.966499 134.785995
203.923004 87.889999 228.794006
63.566898 248.031006 162.744003
63.731499 119.083000 146.231003
143.087997 209.554001 171.000000
64.065201 119.599998 162.744003
55.310600 143.503998 91.325699
113.103996 143.503998 157.783005
113.103996 193.041000 233.867004
137.873001 76.615303 204.024994
146.128998 85.710297 123.447998
182.136002 176.529007 179.255997
160.112000 85.710297 220.537003
55.310600 239.442993 179.255997
55.310600 189.899994 121.462997
170.897995 58.150299 146.231003
179.154007 110.478996 159.716003
154.384995 167.975006 145.673996
71.121803 176.529007 228.794006
63.566898 217.809998 140.688004
47.091000 184.656006 121.544998
154.384995 160.016006 240.886993
67.992302 176.529007 113.206001
149.908997 60.941502 154.488007
96.591797 110.478996 242.225998
114.320999 250.835007 171.000000
84.376900 93.966499 154.488007
82.233299 93.966499 204.024994
136.673996 224.972000 204.024994
104.848000 80.486504 137.975006
57.328201 201.298004 212.281006
129.617004 206.319000 146.231003
51.399899 143.503998 154.488007
162.641998 126.990997 157.436996
104.607002 242.528000 203.994003
37.871498 176.529007 162.744003
170.897995 95.070099 145.436996
63.566898 217.809998 208.751999
228.692001 102.223000 237.419998
220.334000 151.759995 228.794006
96.591797 105.462997 129.718994
217.847000 102.223000 204.024994
203.923004 135.248001 194.494003
54.010700 135.248001 121.462997
55.310600 226.065994 147.876999
121.360001 136.723999 153.348007
63.566898 130.423996 220.537003
170.897995 179.934006 162.744003
179.154007 118.092003 162.936996
212.179001 62.725601 162.744003
170.897995 143.503998 161.408005
113.103996 99.523499 237.050003
59.487499 126.990997 171.000000
134.925003 217.809998 212.281006
138.787003 193.041000 129.718994
63.566898 184.785004 221.270004
113.103996 168.272995 138.830002
82.632004 93.966499 187.511993
179.154007 135.248001 238.511993
146.128998 122.866997 154.488007
54.577202 135.248001 137.975006
84.605797 143.503998 113.206001
96.591797 112.259003 137.975006
182.598999 168.272995 212.281006
154.384995 69.197800 191.199997
88.335602 168.272995 239.688004
60.219601 176.529007 104.949997
179.154007 151.759995 165.328995
113.103996 93.966499 133.410995
96.591797 82.802902 195.768997
74.982101 102.223000 204.024994
40.581200 176.529007 146.231003
105.350998 77.652199 146.231003
146.128998 193.041000 140.865997
129.617004 157.505005 146.231003
63.557800 250.845001 170.934006
129.617004 167.669998 129.246002
105.397003 94.062897 129.542999
159.835007 60.941601 171.000000
146.128998 213.169006 179.255997
137.873001 163.375000 137.975006
192.348007 143.503998 187.511993
47.054401 176.529007 200.820999
121.361000 244.468994 171.000000
137.873001 71.621101 187.511993
54.336498 135.248001 187.511993
88.335602 210.804001 153.537994
209.552994 102.223000 179.255997
96.589600 93.965797 228.794998
113.103996 229.587997 212.281006
146.128998 88.217499 220.537003
64.806900 193.723999 129.231995
80.079300 234.322006 209.634995
118.616997 102.223000 137.975006
71.823097 135.248001 231.084000
187.410004 61.498402 138.949997
170.897995 184.785004 226.190002
66.391098 250.835007 187.511993
63.566898 201.298004 216.488007
96.591797 243.787003 204.024994
203.923004 75.606903 146.231003
187.410004 106.112000 162.744003
187.410004 149.324005 187.511993
113.103996 135.867996 153.968994
207.664993 151.759995 212.281006
113.103996 256.260986 187.511993
146.128998 64.856300 137.975006
171.871002 201.298004 204.024994
121.361000 187.018997 237.050003
38.826599 184.785004 154.488007
47.054401 151.759995 98.843002
67.450203 143.503998 228.794006
222.858002 85.710297 179.255997
129.617004 193.041000 126.003998
59.320202 126.990997 195.768997
88.335602 107.315002 237.050003
129.617004 168.272995 243.235992
63.260601 242.578995 195.768997
195.667007 77.425499 146.300995
63.566898 164.024994 96.693901
195.667007 126.990997 180.931000
63.823399 119.068001 195.768997
159.356003 93.966499 137.975006
44.142601 160.016006 146.231003
71.823097 238.843002 204.024994
104.848000 188.742996 137.975006
162.641998 93.966499 139.615005
46.905701 201.671005 137.975006
217.807999 85.710297 171.000000
129.617004 217.809998 215.406006
60.912701 176.529007 220.537003
167.798004 184.785004 162.744003
162.714005 201.324997 212.328003
80.079300 121.195999 129.718994
122.543999 242.578995 170.406998
141.891998 226.065994 187.511993
129.617004 209.554001 222.272003
44.577000 160.016006 171.000000
203.923004 135.248001 240.009995
104.848000 168.272995 136.779007
170.897995 150.117996 162.744003
45.005299 168.272995 129.718994
153.052002 184.785004 138.944000
194.304993 126.990997 179.255997
137.873001 74.153999 195.768997
129.617004 203.046005 137.975006
88.335602 251.664993 196.350006
63.566898 231.037994 204.024994
71.823097 209.554001 216.557999
162.641998 75.256104 204.024994
146.128998 220.761993 195.768997
236.947998 77.454002 180.677002
137.873001 151.759995 245.985001
71.823097 126.990997 108.911003
212.179001 77.454002 217.462997
96.591797 82.335297 162.744003
88.335602 110.478996 136.235992
187.410004 171.781006 187.511993
55.310600 209.554001 137.210007
104.848000 93.966499 231.080994
104.848000 193.041000 140.367004
195.667007 75.443604 212.281006
121.361000 71.213203 179.255997
41.815800 193.041000 187.511993
88.087898 217.945999 220.608994
104.848000 85.710297 218.294998
137.873001 67.998100 171.000000
187.410004 93.966499 156.787003
88.335602 93.153503 220.537003
137.873001 217.809998 171.710007
71.823097 184.785004 227.401993
43.544701 209.554001 154.488007
96.591797 143.503998 249.878998
236.947998 71.988098 204.024994
55.322399 135.274994 146.095993
203.923004 147.268997 204.024994
80.079300 97.030602 212.281006
154.384995 85.710297 123.858002
104.848000 143.503998 252.057999
240.701996 77.454002 187.511993
96.591797 242.578995 157.445999
63.566898 143.503998 224.449005
220.434998 64.239601 179.255997
121.361000 110.478996 246.061005
154.384995 201.298004 218.356003
49.082500 151.759995 121.462997
129.617004 155.962997 154.488007
187.410004 81.794098 146.231003
88.335602 254.707001 154.488007
187.410004 135.248001 174.231995
232.871994 69.197800 171.000000
183.613007 60.941601 137.975006
41.222198 201.298004 154.488007
46.392502 160.016006 113.206001
80.079300 96.747704 195.768997
144.694000 193.041000 137.975006
133.841995 226.065994 171.000000
137.080002 119.166000 245.110001
55.310600 143.503998 210.011993
154.936005 193.041000 162.744003
80.079300 172.453003 121.462997
88.335602 90.106400 154.488007
109.449997 77.454002 195.768997
185.932007 176.529007 187.511993
138.488007 69.197800 179.255997
88.335602 234.322006 210.632004
63.566898 248.442993 187.511993
179.154007 102.223000 156.085999
187.410004 124.274002 171.000000
55.310600 215.337997 204.024994
68.790199 110.478996 146.231003
87.225502 143.503998 121.462997
105.838997 77.716003 187.511993
203.923004 143.503998 238.811996
87.145699 93.966499 220.537003
121.361000 77.454002 140.386993
51.299000 143.503998 171.000000
148.848007 193.041000 146.231003
195.667007 151.759995 234.317001
80.079300 226.065994 213.488007
103.799004 77.454002 162.744003
104.848000 126.990997 250.731995
228.692001 93.966499 236.401001
96.591797 260.312012 187.511993
92.485603 242.578995 154.488007
42.249298 209.554001 162.744003
212.179001 113.471001 237.050003
126.419998 168.272995 129.718994
121.361000 168.272995 243.914993
195.667007 102.710999 236.839005
129.617004 90.036598 137.975006
199.451996 143.503998 195.768997
179.154007 135.248001 166.231003
113.103996 209.554001 151.835007
88.335602 242.578995 151.934006
172.977005 93.966499 146.231003
170.897995 64.928001 187.511993
228.692001 77.680801 170.285995
64.658897 193.041000 219.809006
47.055698 176.524002 113.214996
84.194199 168.272995 121.462997
50.708599 160.016006 204.024994
179.154007 67.333099 195.768997
121.361000 72.613602 187.511993
104.848000 183.630997 236.576004
210.772995 135.248001 204.024994
146.561996 177.237000 237.156006
63.566898 151.759995 93.789902
207.281006 118.735001 195.768997
242.910004 77.454002 195.768997
93.009499 209.554001 154.488007
142.688995 69.197800 129.718994
146.128998 210.285004 213.042999
104.848000 205.460999 228.794006
80.079300 184.785004 231.906006
220.434998 87.906601 179.255997
81.598198 259.091003 162.744003
113.103996 74.999001 187.511993
113.103996 168.272995 244.423004
121.361000 209.554001 225.074997
47.054401 220.434006 162.744003
170.897995 193.041000 217.011002
162.735001 209.570999 187.292007
71.544899 201.653000 220.660995
113.103996 242.578995 202.005997
170.897995 62.060902 179.255997
220.434998 70.939102 204.024994
47.000500 151.759995 105.977997
45.225300 217.809998 171.000000
186.110992 151.759995 171.000000
88.347198 135.216995 129.675995
129.617004 230.498001 204.024994
179.154007 62.650600 187.511993
146.149002 168.263000 137.960999
121.361000 70.393501 171.000000
83.726501 217.809998 154.488007
104.848000 110.478996 243.518997
55.139999 135.093994 96.557800
113.103996 92.936096 228.794006
71.823097 249.477997 154.488007
215.781006 135.248001 212.281006
41.720100 209.554001 171.000000
162.641998 93.966499 228.875000
162.641998 193.041000 167.061996
71.823097 107.109001 195.768997
71.823097 118.735001 125.864998
48.739300 151.759995 179.255997
220.434998 84.083702 228.794006
220.434998 67.525101 195.768997
80.079300 217.809998 216.914993
129.617004 221.337006 212.281006
88.335602 174.141998 237.050003
59.916401 126.990997 146.231003
63.566898 173.371002 104.949997
129.216003 242.106995 179.255997
119.069000 93.966499 228.794006
179.154007 93.966499 150.865005
113.103996 77.984802 138.673004
79.537903 151.759995 105.557999
97.907997 85.710297 212.281006
121.361000 94.167503 228.494003
71.823097 168.272995 231.425003
69.629997 110.478996 179.255997
60.405300 126.990997 154.488007
137.873001 193.496002 129.389008
121.361000 110.478996 140.209000
154.384995 67.465103 187.511993
203.923004 75.071098 212.281006
55.204399 194.139999 212.445007
185.391998 176.529007 204.024994
113.103996 204.626999 228.794006
71.823097 106.880997 146.231003
144.962997 176.529007 129.718994
224.957001 110.478996 237.050003
96.591797 198.112000 146.231003
83.411598 93.966499 137.975006
162.641998 176.529007 233.132004
71.823097 226.065994 210.410995
48.309898 143.503998 104.949997
129.617004 211.828003 162.744003
187.369003 152.416000 179.255997
113.103996 193.041000 135.595001
212.179001 69.197800 200.852997
74.142197 259.091003 179.255997
154.384995 206.091995 212.281006
38.798199 184.785004 175.522003
71.364998 200.589996 138.365005
154.384995 80.906700 212.281006
179.154007 110.478996 241.651001
220.434998 143.503998 224.578003
232.651001 69.197800 195.768997
85.761902 110.478996 237.050003
175.694000 201.298004 187.511993
60.603401 126.990997 212.281006
47.524899 152.899002 171.000000
104.848000 231.882004 212.281006
137.873001 157.863007 154.488007
55.310600 209.554001 206.912994
211.949997 126.990997 204.298004
204.031006 60.920502 162.231003
187.410004 85.710297 224.867004
195.667007 60.941502 182.910004
113.103996 184.785004 237.537003
170.897995 57.864899 162.744003
179.154007 160.016006 168.563995
104.848000 99.886597 237.050003
76.297501 102.223000 154.488007
195.667007 59.589600 171.000000
80.079300 201.298004 144.074997
92.513901 85.710297 146.231003
146.386993 218.272003 186.470001
113.103996 226.065994 159.811996
154.384995 105.980003 146.231003
104.848000 226.065994 160.539001
38.993099 200.434006 171.000000
55.310600 238.160995 171.000000
71.823097 193.041000 133.639999
154.384995 118.735001 154.869995
63.566898 124.157997 104.949997
104.848000 91.695099 129.718994
58.044998 135.248001 212.281006
162.641998 60.941502 141.294006
129.951004 102.175003 237.119003
80.079300 205.220001 146.231003
154.384995 71.718002 195.768997
170.897995 193.041000 173.367004
162.641998 151.759995 242.061005
79.264297 108.880997 228.794006
187.410004 102.477997 236.919998
187.410004 149.084000 179.255997
55.026600 168.347000 96.630600
154.384995 61.063202 146.863998
80.079300 234.322006 149.324005
129.617004 87.400597 220.537003
146.128998 62.617599 162.744003
104.848000 176.529007 240.483002
121.361000 160.016006 143.621002
146.128998 160.016006 154.811005
162.641998 93.890404 228.794006
214.041000 110.478996 204.024994
187.410004 168.272995 194.154007
104.625000 209.692001 154.397995
80.079300 100.475998 137.975006
146.128998 195.319000 146.231003
212.171997 118.658997 204.039993
212.179001 151.759995 236.785995
64.948997 234.322006 203.417999
113.103996 151.759995 249.416000
67.800003 151.759995 96.693901
228.692001 66.810799 171.000000
241.212997 77.454002 204.024994
137.873001 85.710297 217.675995
234.195007 85.710297 220.537003
104.848000 102.223000 238.917999
48.816601 151.759995 129.718994
179.154007 184.785004 217.147003
154.414001 135.195007 245.313995
88.335602 143.503998 124.453003
66.481102 250.835007 162.744003
154.384995 199.399002 220.537003
96.591797 259.091003 189.121002
216.701004 126.990997 212.281006
162.641998 110.478996 240.904999
183.520004 168.272995 204.024994
55.310600 198.992004 129.718994
179.154007 176.529007 224.529007
57.791698 242.578995 171.000000
48.667000 226.065994 179.255997
203.923004 66.001602 195.768997
88.335602 102.223000 232.970993
50.560799 143.503998 187.511993
195.667007 85.710297 155.677994
165.028000 184.785004 154.488007
162.641998 110.478996 149.496002
146.128998 194.167007 228.794006
47.054401 151.759995 154.487000
71.823097 234.322006 206.945007
52.026299 226.065994 154.488007
69.577003 110.478996 187.511993
224.589996 126.990997 228.794006
195.667007 85.710297 225.320999
162.641998 135.248001 158.201004
154.384995 93.966499 135.501999
65.649002 184.785004 121.462997
104.848000 110.478996 135.100006
170.897995 118.735001 157.914001
47.167999 160.845993 195.768997
170.723007 60.926300 137.931000
165.209000 184.785004 228.794006
212.179001 62.021801 179.255997
229.412003 77.454002 171.000000
43.738400 168.272995 137.975006
204.358002 136.576996 195.768997
146.128998 126.990997 155.951004
232.009003 85.710297 204.024994
203.832993 102.028000 171.108002
162.641998 143.503998 243.112000
92.275703 85.710297 162.744003
154.384995 210.884995 204.024994
148.735001 193.041000 228.794006
88.335602 250.835007 152.259003
170.897995 180.516998 228.794006
172.125000 85.710297 137.975006
129.617004 70.708298 146.231003
121.361000 250.835007 188.809006
88.335602 263.569000 179.255997
104.627998 242.578995 162.914993
43.657101 184.785004 129.718994
220.434998 77.454002 159.807999
121.361000 109.429001 245.306000
210.847000 85.574402 228.794006
46.313202 160.016006 104.949997
113.103996 217.809998 157.738998
88.335602 188.391006 137.975006
92.574203 151.759995 245.306000
154.384995 160.016006 158.722000
129.617004 211.832993 220.537003
172.681000 77.454002 212.281006
103.739998 250.835007 162.744003
137.306000 200.960007 139.016006
217.673996 143.503998 220.537003
84.744698 151.759995 113.206001
104.848000 125.901001 146.884995
121.361000 73.021103 146.231003
55.310600 135.248001 171.485992
137.873001 135.248001 155.264999
88.335602 89.398804 146.231003
195.667007 60.116501 179.255997
146.128998 91.318901 129.718994
71.823097 193.041000 224.531998
88.335602 88.789299 195.768997
60.165699 168.272995 220.537003
161.106995 184.785004 146.231003
162.641998 77.454002 125.941002
71.823097 106.224998 204.024994
80.079300 98.009003 146.231003
47.556400 184.785004 202.714996
56.791901 217.809998 204.024994
195.667007 77.454002 215.483994
54.991600 168.272995 212.800003
113.103996 204.404999 146.231003
187.410004 154.608002 204.024994
187.410004 93.966499 231.037003
49.326099 226.065994 187.511993
78.597504 118.735001 129.718994
104.453003 102.223000 129.960999
146.128998 62.248199 154.488007
71.823097 254.492996 187.511993
121.362999 193.039993 129.720001
113.103996 196.115005 137.975006
212.179001 71.002998 204.024994
187.410004 85.710297 150.419998
203.923004 102.223000 235.912994
154.384995 59.531799 162.744003
173.550003 135.248001 162.744003
228.692001 88.177002 204.024994
63.566898 121.785004 113.206001
104.848000 77.454002 150.080994
104.848000 118.735001 141.895996
80.079300 102.223000 223.222000
91.326401 85.710297 179.255997
80.079300 184.785004 131.175995
154.384995 77.454002 121.889000
48.535000 143.503998 96.693901
76.008102 102.223000 162.744003
55.330700 135.296997 171.000000
88.335602 234.322006 154.787994
121.361000 143.503998 159.378998
71.823097 242.578995 201.212997
113.103996 77.454002 200.093002
62.252499 135.248001 220.537003
113.103996 176.529007 242.401993
43.083698 193.041000 137.975006
204.684006 110.478996 179.255997
71.823097 184.785004 126.671997
55.310600 133.645996 129.718994
112.637001 250.750000 195.669006
137.634003 217.087006 171.000000
80.079300 226.065994 151.764999
80.079300 160.016006 110.779999
46.924599 218.339005 187.511993
88.335602 168.272995 124.445000
55.310600 217.809998 202.634003
121.361000 234.322006 164.582001
187.410004 160.016006 175.828995
80.079300 228.776993 212.281006
137.873001 203.837997 162.744003
212.179001 90.875900 171.000000
170.604004 69.197800 129.737000
154.384995 143.503998 246.287003
183.328003 168.272995 220.537003
137.873001 184.785004 123.282997
102.872002 160.016006 137.975006
71.823097 160.016006 233.820007
220.102997 135.248001 221.285004
71.823097 248.514999 195.768997
64.719704 151.759995 227.647003
40.734402 184.785004 146.231003
42.904202 201.298004 187.511993
175.858994 176.529007 171.000000
121.361000 86.168701 219.904007
170.199005 159.792007 236.962006
76.274300 226.065994 212.281006
179.154007 60.941502 183.080994
229.880005 102.223000 237.050003
137.873001 113.336998 146.231003
55.310600 234.322006 193.630005
170.897995 206.098007 195.768997
154.384995 211.123001 187.511993
146.128998 193.041000 229.735001
137.873001 151.759995 160.203003
113.103996 126.990997 251.033005
69.385201 110.478996 195.768997
39.932499 193.041000 179.255997
137.873001 184.005005 236.753998
53.225700 143.503998 204.024994
228.692001 106.871002 237.050003
47.487202 153.264999 137.975006
129.617004 76.135902 204.024994
121.361000 157.098999 154.488007
146.128998 102.223000 143.108002
71.823097 110.478996 218.639008
220.434998 83.638000 171.000000
170.897995 201.621994 204.649994
59.282200 126.990997 129.718994
220.434998 66.289398 162.744003
179.154007 168.272995 172.835007
63.445702 118.735001 204.024994
220.434998 151.447006 228.794006
41.704498 184.785004 137.975006
63.566898 186.322998 121.462997
96.591797 126.990997 143.589996
154.384995 102.223000 235.093002
91.697197 85.710297 187.511993
137.787994 93.996902 137.949005
69.259697 110.478996 212.281006
170.897995 174.563995 162.744003
146.128998 63.262402 146.231003
37.602901 193.041000 171.000000
113.103996 184.785004 131.886002
104.848000 222.054001 220.537003
203.923004 85.710297 226.987000
129.617004 93.966499 139.492004
121.658997 251.033005 187.511993
137.873001 209.554001 218.914993
195.667007 66.065804 195.768997
162.641998 84.977501 129.718994
146.128998 184.785004 234.917999
75.592003 102.223000 195.768997
75.994598 102.223000 187.511993
71.823097 107.754997 162.744003
186.664001 176.529007 195.768997
179.154007 176.529007 175.115997
121.361000 176.529007 126.716003
137.873001 77.454002 206.134995
195.667007 118.735001 175.363007
220.434998 65.095497 187.511993
51.079399 143.503998 121.462997
212.179001 126.990997 239.567001
237.063004 77.454002 212.673996
63.566898 242.578995 154.802002
71.035797 217.809998 212.602005
88.920303 143.503998 244.951996
154.384995 204.257996 171.000000
104.778000 77.423897 179.843994
47.054401 157.097000 113.206001
113.103996 185.602005 237.050003
52.320499 234.322006 179.255997
163.074997 167.550003 153.802002
154.384995 209.554001 206.787994
236.985992 69.157402 179.626007
55.310600 201.298004 210.589996
47.219398 152.244003 146.231003
179.154007 82.408203 220.537003
83.331596 93.966499 162.744003
84.733498 259.091003 187.511993
162.641998 85.710297 130.931000
187.410004 160.016006 229.298004
50.121399 168.272995 204.024994
137.873001 169.453995 129.718994
212.179001 118.735001 238.128006
113.103996 85.710297 133.348007
196.416000 151.972000 203.595993
55.310600 226.065994 198.585007
228.692001 110.478996 236.108002
143.279999 217.809998 179.255997
137.873001 155.932999 245.306000
129.617004 176.529007 241.729996
96.591797 110.478996 135.813995
129.677002 234.472000 170.899994
121.361000 70.266602 162.744003
113.103996 160.016006 149.104996
129.617004 135.248001 249.339996
88.335602 89.274498 162.744003
212.179001 85.710297 164.686996
212.179001 146.343002 212.281006
177.307007 184.785004 220.537003
181.768997 176.529007 220.537003
104.848000 151.759995 249.210999
82.052299 160.016006 113.206001
63.784100 119.070000 187.511993
80.079300 110.478996 231.147995
161.662994 209.554001 195.768997
88.335602 193.041000 231.770996
79.861900 143.503998 105.355003
82.562599 93.966499 195.768997
121.361000 76.965897 204.024994
80.079300 97.058998 187.511993
203.923004 111.681000 179.255997
137.873001 160.016006 149.003006
88.335602 90.392601 212.281006
221.335007 126.990997 237.455994
55.310600 183.738007 113.206001
47.040298 217.841003 154.408005
129.617004 77.454002 207.050003
88.335602 151.759995 121.462997
46.989799 159.738007 129.718994
96.591797 208.587006 154.488007
121.361000 226.279999 212.281006
228.692001 76.790802 220.537003
162.641998 60.941502 171.789001
187.410004 164.524994 179.255997
162.641998 189.156998 162.744003
110.428001 143.503998 154.488007
154.384995 86.360001 219.873001
59.199501 126.990997 137.975006
181.212997 184.785004 212.281006
88.335602 176.529007 236.031998
220.434998 145.018005 237.050003
232.477005 77.454002 220.537003
162.641998 135.248001 242.125000
50.660599 135.248001 104.949997
57.359600 234.322006 154.488007
79.956802 127.167000 121.834000
228.692001 112.484001 228.794006
80.079300 168.272995 117.766998
171.380005 110.478996 154.179001
203.526993 160.764999 228.794006
80.079300 102.223000 136.742004
61.112701 168.272995 96.693901
93.788902 250.835007 154.488007
134.341995 234.322006 179.255997
162.641998 60.650799 171.000000
129.643005 242.610992 187.839005
113.103996 176.529007 132.925995
82.677696 93.966499 179.255997
179.154007 155.462006 237.050003
96.591797 263.630005 179.255997
110.399002 184.785004 237.050003
96.591797 201.298004 230.220001
162.641998 174.869995 146.231003
96.591797 184.785004 137.608994
215.050995 93.966499 179.255997
137.873001 110.478996 144.654999
129.617004 184.785004 122.049004
96.591797 262.851990 171.000000
146.128998 168.272995 240.044006
113.103996 160.016006 246.016006
44.441299 193.041000 195.768997
47.054401 157.229004 179.255997
71.823097 250.835007 156.199997
129.617004 201.298004 135.345001
146.098007 127.016998 245.298004
61.130100 226.065994 204.024994
121.361000 163.348007 137.975006
113.185997 110.517998 245.291000
154.384995 95.879601 137.975006
170.897995 77.454002 211.684998
72.341797 226.065994 145.822006
183.151001 184.785004 204.024994
137.873001 102.223000 141.792999
203.923004 60.499199 171.000000
137.873001 217.809998 210.490005
203.923004 80.255600 220.537003
170.897995 102.223000 149.712006
195.667007 159.087006 220.537003
212.179001 68.223801 153.313995
76.349503 102.223000 179.255997
150.330002 193.041000 154.488007
121.361000 100.378998 237.050003
146.128998 198.307999 162.744003
55.310600 201.298004 131.598007
39.904999 184.785004 179.255997
121.361000 152.354004 162.878998
187.035995 160.016006 187.511993
88.335602 118.735001 139.500000
200.865005 126.990997 187.511993
137.873001 81.320297 212.281006
162.641998 117.842003 154.488007
38.845299 176.862000 170.643997
88.335602 93.966499 222.134995
203.923004 69.197800 201.548004
220.487000 126.990997 220.389999
207.054993 143.503998 204.024994
122.570999 209.934998 153.910004
132.582001 69.197800 146.231003
46.145599 160.016006 179.255997
236.947998 83.804398 195.768997
85.586098 135.248001 121.462997
179.154007 60.351601 137.975006
37.556099 184.785004 171.000000
78.300102 184.175003 129.718994
96.591797 82.717102 154.488007
214.880005 69.197800 154.488007
162.641998 143.503998 159.337997
92.137802 85.710297 195.768997
63.566898 226.065994 205.882996
184.188995 110.478996 162.744003
79.760696 209.945999 220.677994
170.897995 126.990997 240.802002
187.410004 58.507599 171.000000
212.179001 97.908897 179.255997
63.566898 234.322006 147.511002
96.591797 221.483994 220.537003
121.361000 77.454002 205.210007
154.384995 110.478996 239.522995
69.923698 126.990997 104.949997
170.897995 143.503998 240.830002
121.361000 184.785004 125.828003
121.361000 102.223000 139.160004
209.498993 93.966499 171.000000
129.617004 110.478996 243.589996
187.410004 168.272995 183.863998
134.184006 209.554001 220.537003
137.873001 176.529007 123.825996
38.798199 193.041000 175.494995
212.179001 110.478996 200.662003
105.085999 151.759995 145.848007
63.568401 135.246994 96.693497
126.461998 201.298004 228.794006
203.923004 62.640900 187.511993
59.574200 126.990997 204.024994
195.667007 59.032700 162.744003
135.944000 234.322006 187.511993
221.860001 118.735001 220.537003
212.179001 143.503998 210.332001
141.395004 226.065994 195.768997
63.566898 176.529007 108.552002
63.566898 143.503998 94.364098
146.128998 106.542999 237.050003
137.873001 102.223000 235.195999
129.117996 69.132202 162.744003
129.617004 176.529007 122.657997
154.384995 90.773903 129.718994
195.667007 81.423798 220.537003
176.876007 102.223000 154.488007
187.410004 71.500397 204.024994
99.635101 151.759995 137.975006
40.718601 176.529007 179.255997
47.054401 193.041000 201.307007
188.001007 160.160995 228.794006
96.591797 157.608994 245.306000
96.591797 84.016098 137.975006
170.897995 126.990997 160.746002
203.923004 118.735001 238.285995
195.667007 69.197800 140.528000
55.444801 127.153999 113.206001
104.848000 184.785004 136.487000
179.154007 81.155899 137.975006
121.361000 70.634499 154.488007
47.137699 167.514999 105.311996
59.605400 160.016006 220.537003
121.361000 193.041000 234.304993
228.692001 110.478996 226.716003
179.154007 99.244499 154.488007
38.798199 184.785004 154.557007
47.054401 168.272995 198.591995
183.037994 184.785004 187.511993
170.897995 73.760300 204.024994
137.873001 126.990997 152.048004
195.667007 143.503998 191.725006
63.566898 242.731003 195.932999
113.103996 212.914993 154.488007
63.566898 232.354004 146.231003
121.361000 82.293404 137.975006
41.304699 168.272995 171.000000
96.591797 135.248001 250.835007
179.154007 60.941502 137.067993
83.867401 226.065994 154.488007
55.686901 135.651993 154.488007
203.923004 159.839005 220.643005
121.361000 151.759995 248.276993
154.384995 191.304993 154.488007
129.617004 126.990997 148.737000
226.675003 93.966499 212.281006
180.983994 160.016006 204.024994
146.128998 135.248001 247.434998
137.725006 86.120399 129.457001
228.692001 73.554802 212.281006
229.806000 110.478996 228.794006
96.591797 193.041000 142.774002
63.566898 118.665001 202.796005
137.873001 110.478996 240.813995
187.410004 160.016006 217.542999
187.410004 57.474899 162.744003
187.410004 75.984497 212.281006
113.103996 251.520996 170.662994
187.410004 76.004898 137.975006
129.617004 71.982201 187.511993
121.361000 229.369995 162.744003
176.192001 201.298004 195.768997
212.179001 93.966499 234.753006
168.145996 193.041000 171.000000
162.641998 126.990997 242.231995
144.641006 184.785004 129.718994
129.617004 85.710297 136.615997
192.100006 69.197800 137.975006
136.296997 135.248001 154.488007
137.873001 168.272995 131.231995
71.823097 242.578995 148.917999
162.641998 193.041000 222.701996
231.063004 85.710297 195.768997
100.294998 160.016006 245.306000
187.410004 135.248001 237.412994
104.848000 113.904999 137.975006
39.545399 193.041000 154.488007
170.897995 118.735001 240.811996
187.410004 151.759995 235.848999
198.166000 135.248001 187.511993
187.410004 57.866299 146.231003
165.098007 102.223000 146.231003
220.434998 69.197800 199.813995
146.128998 163.535004 146.231003
162.641998 209.259995 195.768997
220.434998 98.031303 237.050003
154.384995 143.503998 159.037003
220.434998 69.197800 158.852997
69.776604 135.248001 228.794006
184.179001 176.529007 212.281006
170.897995 135.248001 240.186005
104.848000 76.749001 171.000000
53.031601 226.065994 195.768997
63.587200 118.781998 179.255997
203.923004 149.451996 237.050003
195.667007 112.723999 171.000000
142.850998 126.990997 154.488007
223.041000 102.223000 212.281006
185.636002 151.759995 187.511993
88.335602 259.091003 188.537994
71.823097 108.024002 171.000000
47.054401 150.914993 104.949997
113.103996 257.213013 179.255997
121.361000 74.255501 195.768997
154.190002 168.132004 237.003998
179.139008 193.009003 203.970993
129.617004 69.197800 167.326996
195.667007 118.735001 238.830994
88.257401 160.016006 121.539001
51.190601 143.503998 162.744003
104.848000 226.065994 217.276993
195.667007 146.835999 195.768997
71.823097 188.279999 129.718994
88.335602 128.397003 245.306000
96.591797 176.529007 132.723999
109.265999 160.016006 146.231003
96.591797 251.578003 196.623993
69.908401 110.478996 171.000000
187.410004 69.197800 134.651993
228.692001 85.710297 232.179993
137.873001 95.146400 227.371002
170.897995 93.966499 229.195007
113.103996 73.093002 171.000000
226.031998 118.735001 228.794006
93.777298 85.710297 204.024994
176.281998 168.272995 171.000000
154.384995 149.981995 245.306000
129.617004 126.990997 250.209000
96.591797 226.065994 217.123993
179.154007 85.710297 223.703003
104.848000 162.000000 245.306000
179.154007 88.417198 146.231003
187.410004 110.478996 164.692993
60.182598 126.990997 162.744003
63.667099 242.404999 154.488007
63.705101 118.959999 137.975006
162.641998 184.785004 229.811996
228.692001 86.977798 195.768997
137.873001 143.503998 157.977997
154.384995 135.248001 157.667999
88.335602 135.248001 245.998993
154.384995 176.529007 235.115997
195.455994 77.454002 146.231003
65.023102 160.016006 95.996399
121.361000 234.322006 205.244003
55.458000 127.222000 104.949997
187.410004 161.332001 220.537003
129.617004 151.759995 160.927002
113.103996 86.066803 220.154007
43.628101 176.529007 129.718994
154.384995 94.200302 228.615997
212.179001 155.979004 220.537003
195.667007 70.741302 204.024994
121.361000 85.710297 137.130005
129.617004 193.041000 233.498993
88.138199 234.716995 154.488007
113.103996 76.287003 195.768997
41.829899 168.272995 146.231003
63.566898 209.634003 212.307007
213.962997 102.223000 237.050003
43.318401 160.016006 162.744003
146.128998 110.478996 147.839005
104.848000 160.016006 141.000000
113.103996 110.478996 136.671005
71.823097 220.084000 212.281006
113.103996 78.756699 204.024994
55.310600 184.785004 114.738998
47.054401 201.298004 137.438995
178.393997 118.735001 162.744003
203.923004 160.016006 231.556000
55.310600 231.432007 154.488007
170.897995 168.272995 233.087997
113.103996 102.223000 239.714996
88.335602 242.578995 205.182999
88.742599 93.966499 129.917999
146.128998 209.554001 174.373001
113.103996 242.578995 166.235992
170.897995 168.272995 165.800003
81.584503 118.735001 237.050003
170.897995 101.825996 237.453995
162.641998 168.272995 234.904007
82.732903 93.966499 171.000000
161.429001 85.710297 129.718994
71.823097 130.063004 104.949997
154.384995 209.554001 182.817993
121.361000 118.735001 249.694000
232.598007 85.710297 212.281006
63.566898 176.529007 223.110992
220.434998 102.223000 237.688004
155.518005 168.272995 146.231003
157.235001 143.503998 245.306000
88.335602 88.526398 171.000000
88.335602 193.041000 141.800995
96.591797 86.236397 212.281006
170.897995 60.941502 175.332001
129.617004 160.503006 139.154007
187.410004 126.990997 172.026993
228.692001 69.197800 166.432007
54.605801 184.785004 213.080002
137.873001 193.041000 231.873001
88.335602 160.016006 242.233002
154.384995 61.290001 169.492004
88.335602 263.127014 171.000000
71.823097 112.030998 220.537003
184.434998 77.454002 137.975006
78.420403 160.016006 237.860992
38.798199 173.048004 162.744003
129.617004 113.528000 245.306000
137.873001 77.454002 125.934998
71.823097 107.478996 187.511993
45.867100 168.272995 195.768997
231.209000 93.966499 220.537003
179.154007 143.503998 238.854996
76.434700 209.554001 146.231003
113.103996 217.809998 222.494003
60.703499 143.503998 220.537003
154.384995 208.171005 179.255997
224.119003 135.248001 228.794006
171.115005 69.240303 195.684998
156.574997 209.554001 204.024994
221.216995 135.248001 237.789001
204.207993 68.422798 146.065994
146.128998 201.298004 165.677994
121.361000 206.681000 146.231003
47.054401 160.016006 101.314003
104.848000 143.503998 147.585007
198.985992 118.735001 179.255997
154.384995 162.781006 154.488007
46.607300 160.016006 187.511993
162.641998 79.293800 212.281006
179.154007 188.125000 212.281006
96.591797 85.710297 210.460999
146.128998 96.438797 137.975006
38.940800 176.529007 154.488007
80.079300 143.503998 239.033005
43.085098 160.016006 154.488007
121.361000 202.815994 228.794006
187.410004 77.454002 140.718002
212.225006 77.475998 154.468002
146.128998 206.953995 171.000000
113.103996 220.514999 220.537003
79.716797 126.990997 237.334000
195.667007 126.990997 238.589005
220.434998 74.263000 212.281006
179.154007 58.497101 171.000000
137.873001 227.996002 179.255997
71.823097 135.248001 101.702003
113.103996 162.048996 146.231003
179.154007 126.990997 165.822998
138.951996 226.065994 179.255997
88.335602 231.559006 212.281006
195.667007 84.471901 154.488007
44.661098 209.554001 187.511993
96.591797 177.162003 237.270004
80.079300 163.070999 113.206001
203.923004 93.966499 166.039993
84.828598 201.298004 146.231003
154.384995 76.433296 204.024994
80.079300 193.041000 229.300995
137.873001 104.396004 237.050003
146.128998 118.735001 241.843994
88.335602 113.345001 137.975006
186.203003 126.990997 171.000000
228.692001 93.966499 215.707001
76.028297 135.248001 104.949997
119.610001 217.809998 220.537003
80.079300 201.298004 225.466995
162.641998 160.016006 238.371994
71.823097 143.503998 233.298004
129.617004 77.454002 136.453995
162.641998 63.745701 179.255997
184.007004 151.759995 237.050003
44.121498 184.785004 195.768997
48.488899 151.759995 187.511993
69.387199 110.478996 154.488007
57.294998 242.578995 179.255997
59.714802 151.759995 220.537003
212.468002 102.223000 187.511993
121.361000 217.320007 220.106003
221.315002 118.735001 237.223007
170.897995 190.020996 171.000000
104.848000 80.817497 204.024994
64.818001 160.016006 227.190994
59.503101 242.578995 162.744003
104.848000 118.735001 247.440002
110.260002 234.322006 162.744003
104.848000 251.501999 196.485001
162.641998 151.759995 162.460007
154.384995 189.992004 146.231003
236.947998 70.106796 195.768997
129.617004 209.554001 160.766998
104.848000 261.380005 179.255997
47.054401 209.554001 144.056000
162.641998 207.651993 179.255997
146.128998 118.735001 152.488007
146.128998 143.503998 159.554001
220.434998 79.813599 162.744003
162.641998 68.713501 129.235992
162.641998 195.028000 220.537003
55.310600 132.419998 121.462997
129.617004 234.322006 200.399994
137.873001 65.908699 154.488007
187.464996 143.089005 237.037994
228.093994 85.440697 187.511993
80.079300 118.735001 131.645004
212.179001 102.439003 186.968994
104.848000 160.016006 245.884995
103.614998 77.454002 171.000000
80.079300 100.522003 220.537003
88.335602 88.518997 187.511993
187.410004 77.454002 214.863998
113.103996 201.298004 230.399994
63.821701 119.138000 171.000000
179.154007 92.606796 228.794006
96.591797 93.966499 126.980003
187.410004 59.158600 179.255997
63.566898 118.735001 208.449997
96.591797 126.990997 249.283005
162.641998 62.144001 137.975006
212.179001 110.478996 236.710007
141.772003 110.478996 146.231003
145.567001 160.091995 154.488007
55.310600 238.311996 187.511993
163.024002 176.529007 145.682007
71.823097 107.809998 179.255997
113.103996 209.554001 226.656998
88.335602 126.990997 135.682999
162.641998 187.097000 154.488007
187.410004 90.724701 154.488007
154.384995 151.759995 161.354996
154.384995 59.513802 154.488007
51.004002 143.503998 129.718994
104.848000 234.322006 162.304001
212.179001 160.016006 223.046997
71.823097 250.835007 192.945007
43.344501 201.298004 146.231003
71.823097 151.759995 234.537003
113.103996 118.735001 248.848999
42.835300 209.554001 179.255997
162.641998 71.123497 195.768997
146.128998 107.320000 146.231003
88.335602 89.056000 137.975006
49.953201 201.298004 204.024994
146.128998 151.759995 160.483002
146.128998 195.792999 154.488007
63.566898 126.990997 101.676003
129.617004 80.778999 212.281006
55.310600 133.990005 137.975006
130.447006 69.273102 171.000000
129.617004 186.059998 237.050003
77.116699 143.503998 237.050003
179.154007 69.197800 198.684998
162.641998 58.124401 162.744003
234.858994 93.966499 228.794006
64.174103 126.990997 219.755997
50.065601 217.809998 146.231003
203.923004 126.990997 239.259995
179.154007 76.692398 212.281006
48.950901 176.529007 204.024994
80.079300 209.554001 148.488007
187.410004 61.303200 186.072998
212.179001 143.503998 239.475006
96.591797 82.712799 146.231003
96.591797 85.710297 134.576996
236.947998 76.603600 179.255997
195.667007 124.325996 179.255997
39.013599 200.662994 162.744003
170.897995 151.759995 240.306000
195.667007 156.589005 212.281006
104.848000 238.600998 162.744003
40.200298 168.272995 162.744003
113.103996 239.675995 204.024994
210.731003 85.051598 162.744003
71.823097 178.959000 228.794006
207.132004 60.941502 171.000000
223.000000 93.966499 204.024994
137.873001 118.735001 148.535995
80.079300 135.248001 109.989998
71.823097 179.593994 121.462997
125.735001 217.809998 162.744003
96.591797 168.272995 241.496994
217.781998 118.735001 212.281006
71.823097 110.478996 137.326996
93.847702 176.529007 237.050003
129.617004 85.710297 218.667007
80.079300 261.522003 171.000000
217.901993 93.966499 187.511993
104.973999 259.148010 170.878006
181.151001 193.041000 195.768997
47.054401 221.559998 171.000000
195.667007 62.317600 187.511993
146.128998 68.701797 128.787003
